# .PCD v0.7 - Point Cloud Data file format
VERSION 0.7
FIELDS x y z rgb
SIZE 4 4 4 4
TYPE F F F F
COUNT 1 1 1 1
WIDTH 1042
HEIGHT 1
VIEWPOINT 0 0 0 1 0 0 0
POINTS 1042
DATA ascii
0.28523698 0.12139505 0.99290919 2.119121e-38
0.29497176 0.12133213 0.99300015 2.1283766e-38
0.30514324 0.12133213 0.99300015 2.0914619e-38
0.31488162 0.12126921 0.99309099 2.036072e-38
0.32463941 0.12133213 0.99300015 2.0453647e-38
0.33481091 0.12133213 0.99300015 2.165328e-38
0.34498236 0.12133213 0.99300015 2.1654359e-38
0.3551538 0.12133213 0.99300015 2.1746196e-38
0.3653253 0.12133213 0.99300015 2.1654362e-38
0.37507674 0.12139505 0.99290919 2.1469606e-38
0.38481975 0.12133213 0.99300015 2.1285221e-38
0.39499122 0.12133213 0.99300015 2.1192299e-38
0.40516266 0.12133213 0.99300015 2.1561803e-38
0.41533417 0.12133213 0.99300015 2.1007545e-38
0.42508262 0.12126921 0.99309099 2.202314e-38
0.4348304 0.12133213 0.99300015 2.1100462e-38
0.44500181 0.12133213 0.99300015 2.1284132e-38
0.45517331 0.12133213 0.99300015 2.0178506e-38
0.4649165 0.12139505 0.99290919 2.0548737e-38
0.47466773 0.12133213 0.99300015 2.0271067e-38
0.48483926 0.12133213 0.99300015 2.0732407e-38
0.4950107 0.12133213 0.99300015 2.0548014e-38
0.50518215 0.12133213 0.99300015 2.0547654e-38
0.51324826 0.12123325 0.9931429 2.0362177e-38
-0.55012661 0.11395982 1.0070001 2.1192299e-38
-0.54457396 0.11534335 1.0046875 2.1654363e-38
-0.53484327 0.11534079 1.0046668 2.1562528e-38
-0.52482796 0.11533838 1.0046471 2.0916797e-38
-0.51513153 0.11526196 1.0048236 2.1007544e-38
-0.50511247 0.11534079 1.0046668 2.1838752e-38
-0.49510765 0.11542203 1.0045294 2.0915348e-38
-0.48510355 0.11534079 1.0046668 2.1561442e-38
-0.47481263 0.11534079 1.0046668 2.1469243e-38
-0.46479839 0.11533838 1.0046471 2.1652916e-38
-0.45509151 0.11526197 1.0048236 2.0546202e-38
-0.44508177 0.11534079 1.0046668 2.1468519e-38
-0.43508515 0.11542203 1.0045295 2.1653276e-38
-0.42507282 0.11534079 1.0046668 2.1561079e-38
-0.41478187 0.11534079 1.0046668 2.1561076e-38
-0.40476885 0.11533838 1.0046471 2.1653276e-38
-0.39477184 0.11534079 1.0046668 2.0914986e-38
-0.38506058 0.11534335 1.0046875 2.0914623e-38
-0.37533316 0.11534079 1.0046668 2.156144e-38
-0.36504215 0.11534079 1.0046668 2.1099376e-38
-0.35475123 0.11534079 1.0046668 2.1930226e-38
-0.34473938 0.11533838 1.0046471 2.1653636e-38
-0.33474115 0.11534079 1.0046668 2.1469245e-38
-0.32502866 0.11534335 1.0046875 2.1101189e-38
-0.31530246 0.11534079 1.0046668 2.1285579e-38
-0.30501151 0.11534079 1.0046668 2.165473e-38
-0.29500067 0.11533838 1.0046471 2.1746923e-38
-0.28500146 0.11534079 1.0046668 2.1932039e-38
-0.27499312 0.11542203 1.0045295 2.1562532e-38
-0.26499256 0.11534079 1.0046668 2.1008994e-38
-0.25499293 0.11526197 1.0048236 2.1653635e-38
-0.24498084 0.11534079 1.0046668 2.1191212e-38
-0.23497114 0.11533838 1.0046471 2.1284128e-38
-0.22497079 0.11534079 1.0046668 2.1099013e-38
-0.21497063 0.11542203 1.0045295 2.0914259e-38
-0.20496188 0.11534079 1.0046668 2.0637672e-38
-0.19495286 0.11526196 1.0048236 2.0546925e-38
-0.18495016 0.11534079 1.0046668 2.156108e-38
-0.17494163 0.11533838 1.0046471 2.1746197e-38
-0.16523775 0.11542203 1.0045294 2.1746196e-38
-0.15522219 0.11534079 1.0046668 2.1654e-38
-0.14493121 0.11534079 1.0046668 2.1469248e-38
-0.13464023 0.11534079 1.0046668 2.1008269e-38
-0.12462024 0.11526197 1.0048236 2.1377413e-38
-0.11491212 0.11533838 1.0046471 2.1838756e-38
-0.10521526 0.11542203 1.0045295 2.100863e-38
-0.095191516 0.11534079 1.0046668 2.1930584e-38
-0.084900528 0.11534079 1.0046668 2.1008265e-38
-0.074609563 0.11534079 1.0046668 2.1376688e-38
-0.064580187 0.11526196 1.0048236 2.0732045e-38
-0.055196825 0.11542454 1.0045 2.2024236e-38
-0.045451801 0.11534079 1.0046668 2.1377416e-38
-0.035160828 0.11534079 1.0046668 2.1746922e-38
-0.02486985 0.11534079 1.0046668 2.1654363e-38
-0.014578879 0.11534079 1.0046668 2.1562528e-38
-0.0051454869 0.11534078 1.0046668 2.1100828e-38
0.0042879051 0.11534079 1.0046668 2.0915349e-38
0.014578879 0.11534079 1.0046668 2.1746196e-38
0.02486985 0.11534079 1.0046668 2.0915708e-38
0.035160828 0.11534079 1.0046668 2.1561442e-38
0.045451801 0.11534079 1.0046668 2.156108e-38
0.055196825 0.11542454 1.0045 2.1561079e-38
0.064580187 0.11526196 1.0048236 2.0361813e-38
0.074609555 0.11534079 1.0046668 2.1560356e-38
0.084900528 0.11534079 1.0046668 2.1653274e-38
0.095191501 0.11534079 1.0046668 2.1469243e-38
0.10521526 0.11542203 1.0045295 2.1652913e-38
0.11491212 0.11533838 1.0046471 2.1653276e-38
0.12462024 0.11526197 1.0048236 2.1007182e-38
0.13464023 0.11534079 1.0046668 2.0822429e-38
0.1449312 0.11534079 1.0046668 2.156144e-38
0.15522219 0.11534079 1.0046668 2.1099378e-38
0.16523772 0.11542203 1.0045295 2.1929867e-38
0.17494164 0.11533838 1.0046471 2.1653636e-38
0.18495014 0.11534079 1.0046668 2.1469245e-38
0.19495286 0.11526197 1.0048236 2.1193025e-38
0.20496188 0.11534079 1.0046668 2.1285579e-38
0.21497063 0.11542203 1.0045295 2.1655089e-38
0.22497079 0.11534079 1.0046668 2.1746923e-38
0.23497114 0.11533838 1.0046471 2.1932039e-38
0.24498081 0.11534079 1.0046668 2.1562532e-38
0.25499293 0.11526196 1.0048236 2.1100831e-38
0.26499256 0.11534079 1.0046668 2.156108e-38
0.27499312 0.11542203 1.0045295 2.1283407e-38
0.28500143 0.11534079 1.0046668 2.1283767e-38
0.29500064 0.11533838 1.0046471 2.1099012e-38
0.30501148 0.11534079 1.0046668 2.0914259e-38
0.31530246 0.11534079 1.0046668 2.0637674e-38
0.32502866 0.11534335 1.0046875 2.045473e-38
0.33474118 0.11534079 1.0046668 2.1468885e-38
0.34473938 0.11533838 1.0046471 2.1746197e-38
0.3547512 0.11534079 1.0046668 2.1746197e-38
0.36504215 0.11534079 1.0046668 2.1562165e-38
0.37533316 0.11534079 1.0046668 2.1469248e-38
0.38506058 0.11534335 1.0046875 2.1192661e-38
0.39477187 0.11534079 1.0046668 2.1193022e-38
0.40476885 0.11533838 1.0046471 2.1838756e-38
0.4147819 0.11534079 1.0046668 2.100863e-38
0.42507285 0.11534079 1.0046668 2.1930584e-38
0.43508515 0.11542203 1.0045295 2.1007906e-38
0.44508177 0.11534079 1.0046668 2.1284492e-38
0.45509145 0.11526196 1.0048236 2.0732045e-38
0.46479836 0.11533838 1.0046471 2.193204e-38
0.47481251 0.11534079 1.0046668 2.1285581e-38
0.48510352 0.11534079 1.0046668 2.174692e-38
0.49510765 0.11542203 1.0045295 2.1654362e-38
0.50511247 0.11534079 1.0046668 2.1654723e-38
0.51513153 0.11526196 1.0048236 2.0916795e-38
0.52128226 0.11499555 1.00525 2.1008272e-38
-0.55320132 0.10910251 1.0167145 2.146925e-38
-0.5449031 0.10919857 1.0165 2.1745836e-38
-0.53449082 0.10919857 1.0165 2.1562525e-38
-0.52494639 0.10919857 1.0165 2.0823517e-38
-0.51540184 0.10919857 1.0165 2.0914986e-38
-0.50498968 0.10919857 1.0165 2.1653637e-38
-0.4945775 0.10919857 1.0165 2.1099741e-38
-0.48503301 0.10919857 1.0165 2.1653635e-38
-0.47548848 0.10919857 1.0165 2.1468163e-38
-0.4650763 0.10919857 1.0165 2.156072e-38
-0.45466411 0.10919857 1.0165 2.0638041e-38
-0.44466624 0.10925971 1.0163636 2.1560719e-38
-0.43516088 0.10913744 1.0166364 2.1652914e-38
-0.42516288 0.10919857 1.0165 2.156108e-38
-0.41475075 0.10919857 1.0165 2.1560719e-38
-0.40475816 0.10925971 1.0163636 2.1745832e-38
-0.39524209 0.10913744 1.0166364 2.1008265e-38
-0.3852495 0.10919857 1.0165 2.0730235e-38
-0.37483737 0.10919857 1.0165 2.1468523e-38
-0.36485013 0.10925971 1.0163637 2.1007182e-38
-0.35488197 0.10919857 1.0165 2.1746193e-38
-0.34490982 0.10913744 1.0166364 2.1745471e-38
-0.33492398 0.10919857 1.0165 2.1561442e-38
-0.32494214 0.10925971 1.0163636 2.1193387e-38
-0.31496859 0.10919857 1.0165 2.1562533e-38
-0.30499107 0.10913744 1.0166364 2.1563254e-38
-0.29501063 0.10919857 1.0165 2.1747282e-38
-0.28503409 0.10925971 1.0163636 2.19324e-38
-0.27505523 0.10919857 1.0165 2.1655089e-38
-0.26507235 0.10913744 1.0166364 2.1101191e-38
-0.25509724 0.10919857 1.0165 2.1469246e-38
-0.2451261 0.10925971 1.0163636 2.1375602e-38
-0.23514184 0.10919857 1.0165 2.1191213e-38
-0.22472966 0.10919857 1.0165 2.1283766e-38
-0.21474002 0.10913744 1.0166364 2.0913899e-38
-0.20521806 0.10925971 1.0163637 2.0360721e-38
-0.19522846 0.10919857 1.0165 2.0638762e-38
-0.18481629 0.10919857 1.0165 2.1561443e-38
-0.1748213 0.10913744 1.0166364 2.1838393e-38
-0.16531006 0.10925971 1.0163637 2.1838755e-38
-0.15531509 0.10919857 1.0165 2.1561445e-38
-0.14490291 0.10919857 1.0165 2.1561805e-38
-0.13490258 0.10913744 1.0166364 2.1100105e-38
-0.12540203 0.10925971 1.0163636 2.1007908e-38
-0.11540171 0.10919857 1.0165 2.1654002e-38
-0.10498953 0.10919857 1.0165 2.1007544e-38
-0.094577342 0.10919857 1.0165 2.1929867e-38
-0.085032843 0.10919857 1.0165 2.100863e-38
-0.075488344 0.10919857 1.0165 2.1376689e-38
-0.065076157 0.10919857 1.0165 2.0916074e-38
-0.054663967 0.10919857 1.0165 2.183948e-38
-0.045119464 0.10919857 1.0165 2.1100468e-38
-0.035574969 0.10919857 1.0165 2.1654363e-38
-0.025162777 0.10919857 1.0165 2.165364e-38
-0.014750595 0.10919857 1.0165 2.1562526e-38
-0.0052060927 0.10919857 1.0165 2.0823517e-38
0.0043384107 0.10919857 1.0165 2.0822791e-38
0.014750594 0.10919857 1.0165 2.1469606e-38
0.025162779 0.10919857 1.0165 2.1191576e-38
0.035574969 0.10919857 1.0165 2.1653636e-38
0.045119464 0.10919857 1.0165 2.1284129e-38
0.054663971 0.10919857 1.0165 2.1560719e-38
0.065076157 0.10919857 1.0165 2.0638399e-38
0.075488344 0.10919857 1.0165 2.1560717e-38
0.085032843 0.10919857 1.0165 2.1652916e-38
0.094577342 0.10919857 1.0165 2.156108e-38
0.10498952 0.10919857 1.0165 2.1561077e-38
0.11540171 0.10919857 1.0165 2.1653637e-38
0.12540205 0.10925971 1.0163636 2.1007905e-38
0.1349026 0.10913744 1.0166364 2.0730235e-38
0.1449029 0.10919857 1.0165 2.1376686e-38
0.15531509 0.10919857 1.0165 2.1099378e-38
0.16531007 0.10925971 1.0163636 2.1746193e-38
0.17482132 0.10913744 1.0166364 2.1745471e-38
0.18481627 0.10919857 1.0165 2.1561442e-38
0.19522846 0.10919857 1.0165 2.1193028e-38
0.20521811 0.10925971 1.0163637 2.1654729e-38
0.21474002 0.10913744 1.0166364 2.1563255e-38
0.22472966 0.10919857 1.0165 2.1654728e-38
0.23514181 0.10919857 1.0165 2.1932042e-38
0.2451261 0.10925971 1.0163637 2.1655448e-38
0.25509724 0.10919857 1.0165 2.1008995e-38
0.26507235 0.10913744 1.0166364 2.1653636e-38
0.27505523 0.10919857 1.0165 2.1283406e-38
0.28503409 0.10925971 1.0163637 2.1283767e-38
0.29501063 0.10919857 1.0165 2.1283765e-38
0.30499107 0.10913744 1.0166364 2.0913899e-38
0.31496859 0.10919857 1.0165 2.0452556e-38
0.32494211 0.10925971 1.0163636 2.0639124e-38
0.33492404 0.10919857 1.0165 2.1561443e-38
0.34490982 0.10913744 1.0166364 2.1838393e-38
0.35488194 0.10919857 1.0165 2.1839115e-38
0.36485013 0.10925971 1.0163637 2.1561443e-38
0.37483734 0.10919857 1.0165 2.1561805e-38
0.38524956 0.10919857 1.0165 2.1100105e-38
0.39524209 0.10913744 1.0166364 2.1192659e-38
0.40475821 0.10925971 1.0163637 2.1654003e-38
0.4147507 0.10919857 1.0165 2.0823512e-38
0.42516297 0.10919857 1.0165 2.2022423e-38
0.43516088 0.10913744 1.0166364 2.1100824e-38
0.44466624 0.10925971 1.0163636 2.1284492e-38
0.45466408 0.10919857 1.0165 2.0824238e-38
0.4650763 0.10919857 1.0165 2.183948e-38
0.47548848 0.10919857 1.0165 2.1100827e-38
0.48503301 0.10919857 1.0165 2.1839115e-38
0.4945775 0.10919857 1.0165 2.165364e-38
0.50498962 0.10919857 1.0165 2.1562526e-38
0.51540184 0.10919857 1.0165 2.0731321e-38
0.52494639 0.10919857 1.0165 2.0914626e-38
0.53006709 0.10852613 1.018 2.1653995e-38
-0.55172157 0.11197939 1.0115 2.0915712e-38
-0.54527962 0.11191908 1.0116366 2.1654e-38
-0.53531545 0.11197939 1.0115002 2.1654362e-38
-0.5249545 0.11197939 1.0115002 2.0823878e-38
-0.51459348 0.11197939 1.0115002 2.0914988e-38
-0.50463611 0.1120397 1.0113639 2.1653999e-38
-0.49519485 0.11191908 1.0116366 2.0915345e-38
-0.48523742 0.11197939 1.0115002 2.15618e-38
-0.47487646 0.11197939 1.0115002 2.1468523e-38
-0.46451551 0.11197939 1.0115002 2.1652914e-38
-0.45456484 0.1120397 1.0113639 2.036145e-38
-0.44511008 0.11191908 1.0116366 2.146816e-38
-0.43515939 0.11197939 1.0115002 2.1560357e-38
-0.42479843 0.11197939 1.0115002 2.1561439e-38
-0.41485319 0.1120397 1.0113639 2.1561439e-38
-0.4049412 0.11197939 1.0115002 2.1653277e-38
-0.39502525 0.11191908 1.0116366 2.0914988e-38
-0.38508138 0.11197939 1.0115002 2.0730591e-38
-0.37472039 0.11197939 1.0115002 2.1469246e-38
-0.36478192 0.1120397 1.0113639 2.1099736e-38
-0.35486323 0.11197939 1.0115002 2.183803e-38
-0.34494054 0.11191908 1.0116366 2.174547e-38
-0.33500338 0.11197939 1.0115002 2.1469606e-38
-0.32507017 0.1120397 1.0113639 2.1193022e-38
-0.31514615 0.11197939 1.0115002 2.1470335e-38
-0.30478516 0.11197939 1.0115002 2.1470695e-38
-0.29485577 0.11191908 1.0116366 2.1746922e-38
-0.28492534 0.11197939 1.0115002 2.2024956e-38
-0.2749989 0.1120397 1.0113639 2.156217e-38
-0.26506811 0.11197939 1.0115002 2.0917521e-38
-0.25470716 0.11197939 1.0115002 2.1745471e-38
-0.24477099 0.11191908 1.0116366 2.1099375e-38
-0.23484734 0.11197939 1.0115002 2.128413e-38
-0.22492763 0.1120397 1.0113639 2.1099013e-38
-0.21499011 0.11197939 1.0115002 2.09139e-38
-0.20462911 0.11197939 1.0115002 2.0545115e-38
-0.19468625 0.11191908 1.0116366 2.0639125e-38
-0.18521595 0.1120397 1.0113639 2.1469245e-38
-0.17527306 0.11197939 1.0115002 2.1838755e-38
-0.16491209 0.11197939 1.0115002 2.1838753e-38
-0.15455112 0.11197939 1.0115002 2.1561806e-38
-0.14460148 0.11191908 1.0116366 2.1469248e-38
-0.1351447 0.1120397 1.0113639 2.1100465e-38
-0.12519503 0.11197939 1.0115002 2.1192661e-38
-0.11483406 0.11197939 1.0115002 2.1561447e-38
-0.1044731 0.11197939 1.0115002 2.1192658e-38
-0.094975553 0.11197939 1.0115002 2.1930589e-38
-0.085477993 0.11197939 1.0115002 2.1192296e-38
-0.075117022 0.11197939 1.0115002 2.1192659e-38
-0.064756051 0.11197939 1.0115002 2.08246e-38
-0.054395091 0.11197939 1.0115002 2.1932039e-38
-0.044897534 0.11197939 1.0115002 2.1100465e-38
-0.035399977 0.11197939 1.0115002 2.174692e-38
-0.025039008 0.11197939 1.0115002 2.1654e-38
-0.014678039 0.11197939 1.0115002 2.165436e-38
-0.0051804841 0.11197939 1.0115002 2.1007909e-38
0.0043170704 0.11197939 1.0115002 2.0731317e-38
0.014678039 0.11197939 1.0115002 2.1561443e-38
0.02503901 0.11197939 1.0115002 2.0915346e-38
0.035399981 0.11197939 1.0115002 2.1561442e-38
0.044897534 0.11197939 1.0115002 2.1468523e-38
0.054395087 0.11197939 1.0115002 2.156108e-38
0.064756058 0.11197939 1.0115002 2.0545841e-38
0.075117022 0.11197939 1.0115002 2.146816e-38
0.085477993 0.11197939 1.0115002 2.1560717e-38
0.094975546 0.11197939 1.0115002 2.1469243e-38
0.10447311 0.11197939 1.0115002 2.1653635e-38
0.11483407 0.11197939 1.0115002 2.156144e-38
0.12519506 0.11197939 1.0115002 2.0915348e-38
0.1351447 0.1120397 1.0113639 2.0730231e-38
0.14460146 0.11191908 1.0116366 2.1561442e-38
0.15455112 0.11197939 1.0115002 2.1099378e-38
0.16491209 0.11197939 1.0115002 2.1929867e-38
0.17527306 0.11197939 1.0115002 2.1653635e-38
0.18521595 0.1120397 1.0113639 2.1377411e-38
0.19468625 0.11191908 1.0116366 2.1193024e-38
0.20462915 0.11197939 1.0115002 2.1469975e-38
0.21499011 0.11197939 1.0115002 2.1562892e-38
0.22492765 0.1120397 1.0113639 2.1654726e-38
0.23484735 0.11197939 1.0115002 2.2024958e-38
0.244771 0.11191908 1.0116366 2.1562531e-38
0.25470716 0.11197939 1.0115002 2.1101913e-38
0.26506811 0.11197939 1.0115002 2.1653276e-38
0.27499893 0.1120397 1.0113639 2.119157e-38
0.28492534 0.11197939 1.0115002 2.1191933e-38
0.29485577 0.11191908 1.0116366 2.1190849e-38
0.30478519 0.11197939 1.0115002 2.1006095e-38
0.31514615 0.11197939 1.0115002 2.0453278e-38
0.32507017 0.1120397 1.0113639 2.073132e-38
0.33500338 0.11197939 1.0115002 2.1469245e-38
0.34494054 0.11191908 1.0116366 2.1838753e-38
0.35486317 0.11197939 1.0115002 2.193095e-38
0.36478183 0.1120397 1.0113639 2.1561805e-38
0.37472042 0.11197939 1.0115002 2.1469249e-38
0.38508138 0.11197939 1.0115002 2.1100105e-38
0.39502525 0.11191908 1.0116366 2.1192659e-38
0.40494117 0.11197939 1.0115002 2.1561807e-38
0.4148531 0.1120397 1.0113639 2.0915709e-38
0.42479843 0.11197939 1.0115002 2.2023143e-38
0.43515942 0.11197939 1.0115002 2.1192298e-38
0.44511008 0.11191908 1.0116366 2.1192659e-38
0.45456484 0.1120397 1.0113639 2.0639847e-38
0.46451545 0.11197939 1.0115002 2.1839843e-38
0.47487646 0.11197939 1.0115002 2.1284859e-38
0.48523745 0.11197939 1.0115002 2.1655084e-38
0.49519485 0.11191908 1.0116366 2.1745837e-38
0.50463611 0.1120397 1.0113639 2.1746918e-38
0.51459354 0.11197939 1.0115002 2.0915714e-38
0.52369827 0.11190567 1.0116667 2.0730955e-38
-0.5610134 0.10340899 1.0280001 2.0916434e-38
-0.55477631 0.10507011 1.0246665 2.174692e-38
-0.54518002 0.10500953 1.0248259 2.1654363e-38
-0.53510731 0.10494573 1.024913 2.1654362e-38
-0.52503932 0.10512935 1.0245652 2.0731322e-38
-0.51521969 0.10504039 1.0247726 2.1007905e-38
-0.50514913 0.10503846 1.02475 2.1746557e-38
-0.49486363 0.10494573 1.024913 2.1192296e-38
-0.48503089 0.10516564 1.0244999 2.1468883e-38
-0.47519678 0.10500955 1.0248259 2.1376326e-38
-0.46491179 0.10503846 1.02475 2.1560717e-38
-0.45484275 0.10503652 1.0247271 2.0454007e-38
-0.44501713 0.10506923 1.0246955 2.1468522e-38
-0.43495643 0.10500955 1.0248259 2.1652914e-38
-0.42488405 0.10512935 1.024565 2.1561439e-38
-0.41506004 0.10497367 1.0248635 2.1560357e-38
-0.40521368 0.10500955 1.0248259 2.1653637e-38
-0.39514887 0.10512934 1.0245652 2.0915348e-38
-0.38508898 0.10494573 1.0249128 2.0638038e-38
-0.37504283 0.10506923 1.0246955 2.1468883e-38
-0.3649734 0.10500955 1.024826 2.1006819e-38
-0.35491881 0.10512935 1.024565 2.1746193e-38
-0.34507436 0.10497367 1.0248635 2.174547e-38
-0.33501595 0.10503846 1.0247499 2.1468885e-38
-0.32496095 0.10510325 1.0246363 2.1193387e-38
-0.31489843 0.10503846 1.02475 2.1655089e-38
-0.30483255 0.10497367 1.0248635 2.1562895e-38
-0.29522362 0.10510325 1.0246363 2.183948e-38
-0.28515774 0.10503846 1.02475 2.1931676e-38
-0.27487487 0.10506923 1.0246955 2.1470696e-38
-0.26503399 0.10503651 1.0247271 2.1100471e-38
-0.25520816 0.10500955 1.0248259 2.156108e-38
-0.24513583 0.10506923 1.0246955 2.1283767e-38
-0.23486164 0.10503846 1.02475 2.1191572e-38
-0.22479761 0.10503652 1.0247271 2.1375602e-38
-0.21496786 0.10500955 1.0248259 2.0914622e-38
-0.20490064 0.10506923 1.0246955 2.0360362e-38
-0.19505762 0.10503652 1.0247272 2.0638401e-38
-0.18522505 0.10500953 1.0248259 2.1561082e-38
-0.1751616 0.10506923 1.0246955 2.1838755e-38
-0.16510211 0.10512935 1.0245652 2.183839e-38
-0.15504029 0.10494573 1.024913 2.1469608e-38
-0.14498475 0.10500955 1.0248259 2.1561445e-38
-0.13515051 0.10516564 1.0244999 2.1100465e-38
-0.12508558 0.10503846 1.02475 2.1100105e-38
-0.11479658 0.10494573 1.024913 2.1377412e-38
-0.10496737 0.10504039 1.0247725 2.1099742e-38
-0.095136799 0.10512935 1.024565 2.2022781e-38
-0.084848255 0.10503846 1.02475 2.1192296e-38
-0.074766234 0.10491127 1.0249999 2.1191936e-38
-0.065189637 0.10516564 1.0244999 2.054729e-38
-0.055107635 0.10503846 1.02475 2.1839841e-38
-0.044610932 0.10503846 1.02475 2.1100825e-38
-0.034988966 0.10503844 1.0247499 2.1839116e-38
-0.025367003 0.10503846 1.02475 2.1562166e-38
-0.014870311 0.10503846 1.02475 2.1654003e-38
-0.005248345 0.10503844 1.0247498 2.0915712e-38
0.0043736212 0.10503846 1.02475 2.0823515e-38
0.01487031 0.10503846 1.02475 2.1654722e-38
0.025366999 0.10503846 1.02475 2.1192296e-38
0.034988966 0.10503844 1.0247498 2.1468885e-38
0.04461094 0.10503846 1.02475 2.1468522e-38
0.055107623 0.10503846 1.02475 2.1560717e-38
0.065189645 0.10516564 1.0244998 2.0454008e-38
0.074766241 0.10491127 1.0249999 2.1468882e-38
0.084848247 0.10503846 1.02475 2.1560717e-38
0.095136806 0.10512935 1.0245652 2.1561439e-38
0.10496739 0.10504039 1.0247726 2.1560716e-38
0.11479658 0.10494573 1.024913 2.1653637e-38
0.12508556 0.10503846 1.02475 2.0915348e-38
0.13515051 0.10516564 1.0244999 2.0638397e-38
0.14498477 0.10500955 1.0248259 2.1468882e-38
0.15504029 0.10494573 1.024913 2.1006819e-38
0.16510212 0.10512935 1.0245652 2.1746195e-38
0.1751616 0.10506923 1.0246955 2.1745471e-38
0.18522505 0.10500955 1.0248259 2.1468885e-38
0.19505762 0.10503652 1.0247272 2.1193387e-38
0.20490067 0.10506923 1.0246955 2.1654729e-38
0.21496788 0.10500955 1.0248259 2.1562895e-38
0.22479761 0.10503652 1.0247272 2.183948e-38
0.23486164 0.10503846 1.02475 2.1931677e-38
0.24513581 0.10506923 1.0246955 2.1470698e-38
0.25520819 0.10500955 1.0248259 2.1008634e-38
0.26503396 0.10503652 1.0247272 2.1653276e-38
0.27487487 0.10506923 1.0246955 2.1283767e-38
0.28515774 0.10503846 1.02475 2.1191572e-38
0.29522362 0.10510325 1.0246363 2.1283766e-38
0.30483255 0.10497367 1.0248635 2.1006816e-38
0.31489837 0.10503846 1.02475 2.0360362e-38
0.32496095 0.10510325 1.0246363 2.0638402e-38
0.33501598 0.10503846 1.02475 2.1561083e-38
0.34507436 0.10497367 1.0248635 2.1838394e-38
0.35491878 0.10512935 1.0245652 2.183839e-38
0.3649734 0.10500955 1.0248259 2.1469608e-38
0.37504283 0.10506923 1.0246955 2.1561445e-38
0.38508901 0.10494573 1.0249128 2.1007911e-38
0.39514881 0.10512935 1.0245652 2.1100464e-38
0.40521374 0.10500955 1.0248259 2.1377053e-38
0.41506004 0.10497367 1.0248635 2.1099742e-38
0.42488411 0.10512935 1.0245652 2.2022781e-38
0.43495643 0.10500955 1.0248259 2.1100101e-38
0.44501707 0.10506923 1.0246955 2.1284132e-38
0.45484275 0.10503652 1.0247271 2.0639485e-38
0.46491179 0.10503846 1.02475 2.1931677e-38
0.47519678 0.10500955 1.0248259 2.1193021e-38
0.48503089 0.10516564 1.0244999 2.1746562e-38
0.4948636 0.10494573 1.0249128 2.1654362e-38
0.50514913 0.10503846 1.02475 2.1654003e-38
0.51521969 0.10504039 1.0247725 2.0731681e-38
0.52503937 0.10512935 1.0245652 2.1007906e-38
0.53253061 0.10433631 1.0261002 2.1008631e-38
-0.56386018 0.098646104 1.0370001 2.1377052e-38
-0.55500835 0.098646104 1.0370002 2.174656e-38
-0.54527134 0.098646104 1.0370001 2.1838756e-38
-0.53553438 0.098646104 1.0370002 2.1746922e-38
-0.52491224 0.098646104 1.0370002 2.0546565e-38
-0.51517522 0.098646104 1.0370001 2.1007183e-38
-0.50543821 0.098646104 1.0370002 2.1469246e-38
-0.49481606 0.098646104 1.0370002 2.1007181e-38
-0.48507911 0.098646104 1.0370001 2.156108e-38
-0.47534209 0.098646104 1.0370002 2.1561083e-38
-0.46471995 0.098646104 1.0370002 2.1561083e-38
-0.45498297 0.098646104 1.0370001 2.0178142e-38
-0.44524592 0.098646104 1.0370002 2.1468517e-38
-0.43462378 0.098646104 1.0370002 2.1468162e-38
-0.42488676 0.098646104 1.0370001 2.1560719e-38
-0.41514981 0.098646104 1.0370002 2.1560717e-38
-0.40452763 0.098646104 1.0370002 2.1653636e-38
-0.39479065 0.098646104 1.0370001 2.1007904e-38
-0.38505363 0.098646104 1.0370002 2.0546201e-38
-0.37443146 0.098646104 1.0370002 2.1468522e-38
-0.36469448 0.098646104 1.0370001 2.0914985e-38
-0.35495752 0.098646104 1.0370002 2.1745833e-38
-0.34522051 0.098646104 1.0370001 2.1652913e-38
-0.33548352 0.098646104 1.0370002 2.1468885e-38
-0.32486135 0.098646104 1.0370002 2.1100829e-38
-0.31512436 0.098646104 1.0370001 2.1562531e-38
-0.30538738 0.098646104 1.0370002 2.1470698e-38
-0.2947652 0.098646104 1.0370002 2.1747645e-38
-0.28502822 0.098646104 1.0370001 2.1747646e-38
-0.27529123 0.098646104 1.0370002 2.1470336e-38
-0.26466906 0.098646104 1.0370002 2.0824601e-38
-0.25493208 0.098646104 1.0370001 2.1745833e-38
-0.24519508 0.098646104 1.0370002 2.1376326e-38
-0.23457292 0.098646104 1.0370002 2.1283769e-38
-0.22483592 0.098646104 1.0370001 2.1099375e-38
-0.21509895 0.098646104 1.0370002 2.0914621e-38
-0.20447677 0.098646104 1.0370002 2.0268525e-38
-0.19473977 0.098646104 1.0370001 2.0639481e-38
-0.18500279 0.098646104 1.0370002 2.1561082e-38
-0.17526579 0.098646104 1.0370001 2.1746556e-38
-0.16552882 0.098646104 1.0370002 2.193095e-38
-0.15490663 0.098646104 1.0370002 2.1469608e-38
-0.14516966 0.098646104 1.0370001 2.1376689e-38
-0.13543266 0.098646104 1.0370002 2.1285219e-38
-0.1248105 0.098646104 1.0370002 2.1100102e-38
-0.11507352 0.098646104 1.0370001 2.1193019e-38
-0.10533652 0.098646104 1.0370002 2.1007545e-38
-0.094714344 0.098646104 1.0370002 2.1930947e-38
-0.084977359 0.098646104 1.0370001 2.0915346e-38
-0.075240366 0.098646104 1.0370002 2.1376688e-38
-0.0646182 0.098646104 1.0370002 2.0823877e-38
-0.054881211 0.098646104 1.0370001 2.1932399e-38
-0.045144223 0.098646104 1.0370002 2.1377056e-38
-0.034522049 0.098646104 1.0370002 2.1839116e-38
-0.024785062 0.098646104 1.0370001 2.1654722e-38
-0.015048074 0.098646104 1.0370002 2.174692e-38
-0.0053110844 0.098646104 1.0370001 2.0638761e-38
0.0044259038 0.098646104 1.0370002 2.0731315e-38
0.015048072 0.098646104 1.0370002 2.1468887e-38
0.024785062 0.098646104 1.0370001 2.1007541e-38
0.034522049 0.098646104 1.0370002 2.1376688e-38
0.045144223 0.098646104 1.0370002 2.1653637e-38
0.054881211 0.098646104 1.0370001 2.1561442e-38
0.0646182 0.098646104 1.0370002 2.045437e-38
0.075240374 0.098646104 1.0370002 2.1468517e-38
0.084977351 0.098646104 1.0370001 2.1559997e-38
0.094714344 0.098646104 1.0370002 2.1560719e-38
0.10533651 0.098646104 1.0370002 2.1560716e-38
0.11507349 0.098646104 1.0370001 2.1653636e-38
0.1248105 0.098646104 1.0370002 2.1100101e-38
0.13543268 0.098646104 1.0370002 2.0638397e-38
0.14516965 0.098646104 1.0370001 2.1376326e-38
0.15490666 0.098646104 1.0370002 2.1099378e-38
0.16552882 0.098646104 1.0370002 2.1745833e-38
0.17526579 0.098646104 1.0370001 2.1745109e-38
0.18500279 0.098646104 1.0370002 2.1468883e-38
0.19473977 0.098646104 1.0370001 2.1008635e-38
0.20447677 0.098646104 1.0370002 2.1654725e-38
0.21509892 0.098646104 1.0370002 2.1562894e-38
0.22483592 0.098646104 1.0370001 2.1839482e-38
0.23457292 0.098646104 1.0370002 2.1931677e-38
0.24519508 0.098646104 1.0370002 2.1470338e-38
0.25493208 0.098646104 1.0370001 2.1101188e-38
0.26466906 0.098646104 1.0370002 2.1469245e-38
0.27529123 0.098646104 1.0370002 2.1191935e-38
0.28502822 0.098646104 1.0370001 2.1283767e-38
0.2947652 0.098646104 1.0370002 2.1283407e-38
0.30538738 0.098646104 1.0370002 2.091426e-38
0.31512436 0.098646104 1.0370001 2.0268165e-38
0.32486135 0.098646104 1.0370002 2.0823512e-38
0.33548352 0.098646104 1.0370002 2.1561442e-38
0.34522054 0.098646104 1.0370001 2.1746557e-38
0.35495752 0.098646104 1.0370002 2.1930949e-38
0.36469448 0.098646104 1.0370001 2.1561802e-38
0.37443146 0.098646104 1.0370002 2.1376689e-38
0.38505363 0.098646104 1.0370002 2.1100828e-38
0.39479062 0.098646104 1.0370001 2.1191939e-38
0.40452763 0.098646104 1.0370002 2.1100824e-38
0.41514978 0.098646104 1.0370002 2.1284133e-38
0.42488676 0.098646104 1.0370001 2.1930949e-38
0.43462378 0.098646104 1.0370002 2.1007542e-38
0.44524595 0.098646104 1.0370002 2.1284851e-38
0.45498291 0.098646104 1.0370001 2.0455093e-38
0.46471989 0.098646104 1.0370002 2.1839842e-38
0.47534212 0.098646104 1.0370002 2.1192663e-38
0.48507905 0.098646104 1.0370001 2.1931312e-38
0.49481604 0.098646104 1.0370002 2.1469972e-38
0.50543827 0.098646104 1.0370002 2.1562529e-38
0.51517516 0.098646104 1.0370001 2.0546565e-38
0.52491224 0.098646104 1.0370002 2.1007902e-38
0.53553438 0.098646104 1.0370002 2.1468886e-38
-0.56245112 0.10075436 1.0337143 2.1007909e-38
-0.5548982 0.10085452 1.0335001 2.17462e-38
-0.54519415 0.10085451 1.0335 2.1746559e-38
-0.53460783 0.10085451 1.0335 2.1561805e-38
-0.52490371 0.10085452 1.0335001 2.0639124e-38
-0.51519954 0.10085451 1.0335 2.1100101e-38
-0.50461328 0.10085451 1.0335 2.165364e-38
-0.49490911 0.10085452 1.0335001 2.0822789e-38
-0.48520502 0.10085451 1.0335 2.1376689e-38
-0.47461864 0.10085451 1.0335001 2.156144e-38
-0.46491456 0.10085452 1.0335001 2.1653276e-38
-0.45521042 0.10085451 1.0335001 2.0638401e-38
-0.44504717 0.10091826 1.0333637 2.1468162e-38
-0.43537909 0.10079078 1.0336363 2.1560356e-38
-0.42521584 0.10085451 1.0335 2.1561442e-38
-0.41505665 0.10091826 1.0333637 2.1560356e-38
-0.40538052 0.10079078 1.0336363 2.1745833e-38
-0.39522123 0.10085451 1.0335001 2.1007182e-38
-0.385066 0.10091826 1.0333636 2.0638035e-38
-0.37538201 0.10079078 1.0336363 2.1376327e-38
-0.36522669 0.10085451 1.0335 2.1099016e-38
-0.35507539 0.10091826 1.0333637 2.183803e-38
-0.34493753 0.10085451 1.0335001 2.1745109e-38
-0.33479577 0.10079078 1.0336363 2.156072e-38
-0.32508478 0.10091826 1.0333637 2.1193385e-38
-0.31494296 0.10085451 1.0335 2.1470694e-38
-0.30479726 0.10079078 1.0336363 2.1562895e-38
-0.29509416 0.10091826 1.0333636 2.1747286e-38
-0.28494838 0.10085451 1.0335 2.183948e-38
-0.27479872 0.10079078 1.0336363 2.1562532e-38
-0.26510355 0.10091826 1.0333636 2.0916798e-38
-0.25495386 0.10085451 1.0335 2.156144e-38
-0.24480018 0.10079078 1.0336363 2.128413e-38
-0.23511294 0.10091826 1.0333637 2.1283767e-38
-0.22495928 0.10085451 1.0335 2.1283406e-38
-0.21480167 0.10079078 1.0336363 2.0822785e-38
-0.20512231 0.10091826 1.0333636 2.0268165e-38
-0.19496469 0.10085451 1.0335 2.063876e-38
-0.18480313 0.10079078 1.0336363 2.1653637e-38
-0.17513169 0.10091826 1.0333636 2.1838753e-38
-0.16497013 0.10085451 1.0335 2.1929868e-38
-0.1548046 0.10079078 1.0336363 2.1469248e-38
-0.14514109 0.10091826 1.0333636 2.1469246e-38
-0.13497555 0.10085451 1.0335 2.1100466e-38
-0.12480607 0.10079078 1.0336363 2.1100102e-38
-0.11515049 0.10091826 1.0333636 2.1285218e-38
-0.104981 0.10085451 1.0335 2.1192298e-38
-0.094807543 0.10079078 1.0336363 2.1746196e-38
-0.085159875 0.10091826 1.0333636 2.0915708e-38
-0.074986421 0.10085451 1.0335 2.1284132e-38
-0.064809017 0.10079078 1.0336363 2.0639125e-38
-0.055169258 0.10091826 1.0333636 2.1932038e-38
-0.044991858 0.10085451 1.0335 2.1100465e-38
-0.034810487 0.10079078 1.0336363 2.1838396e-38
-0.02517865 0.10091826 1.0333636 2.1562526e-38
-0.014997285 0.10085451 1.0335 2.1654002e-38
-0.0052931593 0.10085452 1.0335001 2.0639123e-38
0.0044109663 0.10085451 1.0335 2.0823514e-38
0.014997285 0.10085451 1.0335 2.1561803e-38
0.025178647 0.10091826 1.0333636 2.1007182e-38
0.034810487 0.10079078 1.0336363 2.1469243e-38
0.044991858 0.10085451 1.0335 2.1561082e-38
0.055169266 0.10091826 1.0333636 2.156108e-38
0.064809009 0.10079078 1.0336363 2.0454368e-38
0.074986421 0.10085451 1.0335 2.146816e-38
0.085159875 0.10091826 1.0333636 2.1560356e-38
0.09480755 0.10079078 1.0336363 2.1469248e-38
0.10498099 0.10085451 1.0335 2.1560357e-38
0.11515049 0.10091826 1.0333636 2.1745833e-38
0.12480607 0.10079078 1.0336363 2.1007182e-38
0.13497557 0.10085451 1.0335 2.0638037e-38
0.14514109 0.10091826 1.0333636 2.1468523e-38
0.15480459 0.10079078 1.0336363 2.1099016e-38
0.16497013 0.10085451 1.0335 2.183767e-38
0.17513172 0.10091826 1.0333636 2.1745109e-38
0.18480313 0.10079078 1.0336363 2.1561079e-38
0.19496469 0.10085451 1.0335 2.1193385e-38
0.20512232 0.10091826 1.0333636 2.1470334e-38
0.21480167 0.10079078 1.0336363 2.1655091e-38
0.22495924 0.10085451 1.0335 2.1746925e-38
0.23511294 0.10091826 1.0333636 2.1931319e-38
0.24480018 0.10079078 1.0336363 2.1562532e-38
0.25495386 0.10085451 1.0335 2.1008634e-38
0.26510355 0.10091826 1.0333636 2.1653637e-38
0.27479869 0.10079078 1.0336363 2.1284491e-38
0.28494841 0.10085451 1.0335 2.1191932e-38
0.29509416 0.10091826 1.0333636 2.1283406e-38
0.30479723 0.10079078 1.0336363 2.0914622e-38
0.31494296 0.10085451 1.0335 2.0360002e-38
0.32508478 0.10091826 1.0333636 2.063876e-38
0.33479577 0.10079078 1.0336363 2.1469246e-38
0.3449375 0.10085451 1.0335 2.1838753e-38
0.35507539 0.10091826 1.0333636 2.1930227e-38
0.36522675 0.10085451 1.0335 2.1469248e-38
0.37538195 0.10079078 1.0336363 2.1469245e-38
0.385066 0.10091826 1.0333636 2.1193021e-38
0.39522132 0.10085451 1.0335 2.1007906e-38
0.40538049 0.10079078 1.0336363 2.1285216e-38
0.41505665 0.10091826 1.0333636 2.1007546e-38
0.4252159 0.10085451 1.0335 2.1930947e-38
0.43537903 0.10079078 1.0336363 2.1007544e-38
0.44504723 0.10091826 1.0333636 2.1284491e-38
0.45521045 0.10085451 1.0335 2.073168e-38
0.46491453 0.10085452 1.0335001 2.1932036e-38
0.47461867 0.10085451 1.0335 2.1192663e-38
0.48520502 0.10085451 1.0335 2.1654363e-38
0.49490911 0.10085452 1.0335001 2.1746919e-38
0.50461328 0.10085451 1.0335 2.1746557e-38
0.5151996 0.10085451 1.0335 2.0546928e-38
0.52490371 0.10085452 1.0335001 2.1100101e-38
0.53419781 0.10079078 1.0336363 2.1377053e-38
-0.57192808 0.093388997 1.0480001 2.257741e-38
-0.56505388 0.094976977 1.0446956 2.1193385e-38
-0.5547654 0.095164798 1.0443043 2.1839117e-38
-0.54499066 0.094967581 1.0447142 2.1562168e-38
-0.53494322 0.095070675 1.0444999 2.1654365e-38
-0.52490157 0.095173299 1.0442857 2.0546568e-38
-0.51511592 0.094976977 1.0446956 2.1007544e-38
-0.50484616 0.095164798 1.0443044 2.137705e-38
-0.49482369 0.095070221 1.0445 2.1099379e-38
-0.48501691 0.095071122 1.0445 2.1468883e-38
-0.47498584 0.095101759 1.0444347 2.156108e-38
-0.46495509 0.094939768 1.0447727 2.1653637e-38
-0.45492682 0.095164798 1.0443043 2.026998e-38
-0.44489503 0.095070235 1.0445 2.017742e-38
-0.43508816 0.095071122 1.0445 2.0546564e-38
-0.42506036 0.095101759 1.0444348 2.0085583e-38
-0.41480145 0.095039152 1.0445651 2.0731318e-38
-0.40477443 0.095071122 1.0445 1.9992667e-38
-0.39496639 0.095070235 1.0445 1.9993393e-38
-0.38515955 0.095071122 1.0445 2.0822789e-38
-0.3751348 0.095101759 1.0444347 2.128413e-38
-0.36509284 0.095136136 1.0443636 2.1099016e-38
-0.35506812 0.094976977 1.0446956 2.1838392e-38
-0.34482282 0.095101759 1.0444348 2.1745471e-38
-0.33478296 0.095136136 1.0443636 2.1469245e-38
-0.32498065 0.095005222 1.0446364 2.1008994e-38
-0.31517065 0.095136136 1.0443636 2.1470334e-38
-0.30491877 0.095070675 1.0445 2.1562894e-38
-0.29466286 0.095005222 1.0446364 2.1839842e-38
-0.28486079 0.095136136 1.0443636 2.1839842e-38
-0.27504545 0.095005222 1.0446364 2.1471058e-38
-0.26524857 0.095136136 1.0443636 2.1008995e-38
-0.2549901 0.095070675 1.0444999 2.1468885e-38
-0.24495411 0.095105194 1.0444285 2.1283769e-38
-0.23515759 0.095039159 1.0445651 2.1191932e-38
-0.22489509 0.095101759 1.0444348 2.1375964e-38
-0.21486971 0.095071122 1.0445 2.0821702e-38
-0.20484191 0.095039159 1.0445651 2.0452558e-38
-0.19502887 0.095105194 1.0444285 2.0639484e-38
-0.18522586 0.095039152 1.0445651 2.1376689e-38
-0.17496957 0.095101774 1.0444347 2.1838755e-38
-0.16494107 0.095071122 1.0445 2.183839e-38
-0.15491018 0.095039152 1.0445651 2.1469971e-38
-0.14488362 0.095201582 1.0442272 2.1468526e-38
-0.13506825 0.094939768 1.0447726 2.1101187e-38
-0.12527393 0.095201582 1.0442272 2.0823155e-38
-0.11501419 0.095070682 1.0445 2.1007906e-38
-0.10474653 0.094939768 1.0447727 2.1192296e-38
-0.094968021 0.095201589 1.0442272 2.2022783e-38
-0.084909216 0.094976977 1.0446956 2.1191935e-38
-0.075131238 0.095173299 1.0442857 2.1099738e-38
-0.065085545 0.095070675 1.0444999 2.0823518e-38
-0.054804854 0.094939768 1.0447726 2.1931677e-38
-0.04505242 0.095201589 1.0442272 2.1285581e-38
-0.034771729 0.095070682 1.0445 2.1746922e-38
-0.024964316 0.095070675 1.0444999 2.1654363e-38
-0.015156906 0.095070675 1.0444999 2.1746919e-38
-0.0053494964 0.095070682 1.0445 2.0639124e-38
0.0044579138 0.095070675 1.0444999 2.0730957e-38
0.015156906 0.095070675 1.0444999 2.137705e-38
0.024964316 0.095070675 1.0444999 2.1191575e-38
0.034771733 0.095070682 1.0444999 2.1376327e-38
0.04505242 0.095201589 1.0442272 2.1653276e-38
0.054804854 0.094939768 1.0447727 2.1561443e-38
0.065085545 0.095070682 1.0444999 2.045437e-38
0.07513123 0.095173299 1.0442857 2.0085224e-38
0.084909216 0.094976977 1.0446956 2.063876e-38
0.094968021 0.095201582 1.0442272 2.0085224e-38
0.10474653 0.094939768 1.0447726 2.0915349e-38
0.11501417 0.095070675 1.0444999 1.9993027e-38
0.12527394 0.095201582 1.0442272 1.9993752e-38
0.13506825 0.094939768 1.0447726 2.0822789e-38
0.14488362 0.095201589 1.0442272 2.1284129e-38
0.15491018 0.095039159 1.0445651 2.1099376e-38
0.16494107 0.095071122 1.0445 2.1838392e-38
0.17496955 0.095101759 1.0444347 2.1653635e-38
0.18522586 0.095039152 1.0445651 2.156108e-38
0.19502887 0.095105194 1.0444285 2.1008635e-38
0.20484191 0.095039152 1.0445651 2.1469975e-38
0.21486971 0.095071122 1.0445 2.1562895e-38
0.2248951 0.095101759 1.0444348 2.1747645e-38
0.23515759 0.095039152 1.0445651 2.1839843e-38
0.24495409 0.095105194 1.0444285 2.1562895e-38
0.25499013 0.095070675 1.0445 2.1008994e-38
0.26524857 0.095136128 1.0443636 2.1653274e-38
0.27504545 0.095005222 1.0446364 2.1283769e-38
0.28486079 0.095136128 1.0443636 2.1191573e-38
0.29466286 0.095005222 1.0446364 2.1375964e-38
0.30491877 0.095070675 1.0444999 2.0822062e-38
0.31517065 0.095136128 1.0443636 2.0452558e-38
0.32498065 0.095005222 1.0446364 2.0639484e-38
0.33478299 0.095136128 1.0443636 2.1376329e-38
0.34482285 0.095101759 1.0444347 2.1838756e-38
0.35506812 0.094976977 1.0446956 2.183839e-38
0.36509284 0.095136128 1.0443636 2.1561806e-38
0.37513477 0.095101759 1.0444347 2.1468524e-38
0.38515958 0.095071122 1.0445 2.1193022e-38
0.39496645 0.095070221 1.0445 2.0823514e-38
0.40477434 0.095071122 1.0445 2.1100462e-38
0.41480139 0.095039152 1.0445651 2.1007545e-38
0.42506033 0.095101759 1.0444347 2.2022783e-38
0.43508813 0.095071122 1.0445 2.1099739e-38
0.44489503 0.095070221 1.0445 2.1191575e-38
0.45492682 0.095164798 1.0443043 2.0823518e-38
0.46495512 0.094939768 1.0447726 2.1839841e-38
0.47498584 0.095101759 1.0444347 2.1193387e-38
0.48501688 0.095071122 1.0445 2.1839117e-38
0.49482369 0.095070221 1.0445 2.1562168e-38
0.50484616 0.095164798 1.0443043 2.174656e-38
0.51511592 0.094976977 1.0446956 2.0546927e-38
0.52490151 0.095173299 1.0442857 2.1007182e-38
0.53494322 0.095070675 1.0444999 2.137705e-38
0.54285824 0.094350651 1.046 2.1561082e-38
-0.5735088 0.089070238 1.0556667 2.2024235e-38
-0.56490833 0.089152336 1.0555 2.1101188e-38
-0.55499768 0.089152336 1.0555 2.1654725e-38
-0.54508704 0.089152336 1.0555 2.1654363e-38
-0.53517628 0.089152336 1.0555 2.1654002e-38
-0.52478886 0.089219511 1.0553637 2.0454733e-38
-0.51493061 0.089085169 1.0556364 2.0822429e-38
-0.50497007 0.089219511 1.0553637 2.137669e-38
-0.49510667 0.089085169 1.0556364 2.1191936e-38
-0.48515123 0.089219511 1.0553637 2.1375966e-38
-0.47528273 0.089085169 1.0556364 2.1561077e-38
-0.46490043 0.089152336 1.0555 2.1468522e-38
-0.45498976 0.089152336 1.0555 2.0823871e-38
-0.44507906 0.089152336 1.0555 2.1283405e-38
-0.43470332 0.089219511 1.0553637 2.1560354e-38
-0.42482179 0.089085162 1.0556364 2.1191569e-38
-0.41488451 0.089219511 1.0553637 2.1745107e-38
-0.4049978 0.089085169 1.0556364 2.0729146e-38
-0.39506567 0.089219503 1.0553637 2.0822789e-38
-0.38517389 0.089085169 1.0556364 2.0915348e-38
-0.37524685 0.089219511 1.0553637 2.1284492e-38
-0.36534992 0.089085169 1.0556364 2.100682e-38
-0.35498187 0.089152336 1.0555 2.1653635e-38
-0.34461769 0.089219511 1.0553637 2.1745473e-38
-0.33471289 0.089085169 1.0556364 2.1469243e-38
-0.32479891 0.089219511 1.0553637 2.0547293e-38
-0.31488892 0.089085169 1.0556364 2.0548014e-38
-0.30498004 0.089219511 1.0553637 2.0732768e-38
-0.29506496 0.089085169 1.0556364 2.0732404e-38
-0.28516123 0.089219511 1.0553637 2.0917157e-38
-0.27524105 0.089085169 1.0556364 2.0547653e-38
-0.26534238 0.089219511 1.0553637 2.0271066e-38
-0.2549752 0.089152336 1.0555 2.1007908e-38
-0.24506448 0.089152336 1.0555 2.0546205e-38
-0.23515378 0.089152336 1.0555 2.1100465e-38
-0.22478005 0.089085169 1.0556364 2.0361813e-38
-0.21489446 0.089219511 1.0553637 2.1285579e-38
-0.2049561 0.089085169 1.0556364 2.1745839e-38
-0.19507563 0.089219511 1.0553637 2.1101187e-38
-0.18513215 0.089085169 1.0556364 2.1468163e-38
-0.1752568 0.089219511 1.0553637 2.1746197e-38
-0.16487795 0.089152329 1.0555 2.1746196e-38
-0.15496725 0.089152336 1.0555 2.1562166e-38
-0.14505655 0.089152336 1.0555 2.165436e-38
-0.13514584 0.089152329 1.0555 2.1285582e-38
-0.12523516 0.089152336 1.0555 2.0823517e-38
-0.11484722 0.089085169 1.0556364 2.0915349e-38
-0.10499003 0.089219511 1.0553637 2.1100465e-38
-0.095023267 0.089085169 1.0556364 2.1929866e-38
-0.0851712 0.089219511 1.0553637 2.1099742e-38
-0.074780703 0.089152336 1.0555 2.1284129e-38
-0.064870007 0.089152336 1.0555 2.0548011e-38
-0.054959312 0.089152336 1.0555 2.1747285e-38
-0.045048621 0.089152336 1.0555 2.1193024e-38
-0.035137922 0.089152336 1.0555 2.1654365e-38
-0.025227224 0.089152336 1.0555 2.1654363e-38
-0.01531653 0.089152336 1.0555 2.1654002e-38
-0.0054058339 0.089152336 1.0555 2.054693e-38
0.0045048618 0.089152336 1.0555 2.0730234e-38
0.015316529 0.089152329 1.0555 2.1468886e-38
0.025227224 0.089152336 1.0555 2.1191575e-38
0.035137922 0.089152336 1.0555 2.1284129e-38
0.045048621 0.089152336 1.0555 2.1561079e-38
0.054959312 0.089152336 1.0555 2.1376686e-38
0.064870007 0.089152336 1.0555 2.0915707e-38
0.074780703 0.089152336 1.0555 2.119121e-38
0.0851712 0.089219511 1.0553637 2.1468519e-38
0.095023267 0.089085162 1.0556364 2.119121e-38
0.10499003 0.089219511 1.0553637 2.1744747e-38
0.11484723 0.089085169 1.0556364 2.0729506e-38
0.12523517 0.089152336 1.0555 2.0822791e-38
0.13514586 0.089152336 1.0555 2.1007183e-38
0.14505655 0.089152336 1.0555 2.1284492e-38
0.15496725 0.089152336 1.0555 2.0914623e-38
0.16487795 0.089152336 1.0555 2.1653635e-38
0.1752568 0.089219511 1.0553637 2.1745473e-38
0.18513215 0.089085169 1.0556364 2.1469243e-38
0.19507563 0.089219511 1.0553637 2.0639488e-38
0.20495613 0.089085169 1.0556364 2.0548014e-38
0.21489446 0.089219511 1.0553637 2.0732767e-38
0.22478005 0.089085169 1.0556364 2.0732404e-38
0.23515379 0.089152336 1.0555 2.0732407e-38
0.24506445 0.089152336 1.0555 2.0732045e-38
0.2549752 0.089152336 1.0555 2.0271066e-38
0.26534241 0.089219511 1.0553637 2.1100102e-38
0.27524105 0.089085169 1.0556364 2.0546565e-38
0.28516126 0.089219511 1.0553637 2.1100464e-38
0.29506499 0.089085169 1.0556364 2.0454007e-38
0.30498007 0.089219511 1.0553637 2.1285579e-38
0.31488895 0.089085169 1.0556364 2.1746197e-38
0.32479888 0.089219511 1.0553637 2.1193022e-38
0.33471289 0.089085169 1.0556364 2.1468163e-38
0.34461772 0.089219511 1.0553637 2.1746197e-38
0.35498184 0.089152329 1.0555 2.1746196e-38
0.36534986 0.089085169 1.0556364 2.1562526e-38
0.37524679 0.089219511 1.0553637 2.1654e-38
0.38517389 0.089085169 1.0556364 2.1009353e-38
0.39506567 0.089219511 1.0553637 2.1008269e-38
0.4049978 0.089085169 1.0556364 2.0915349e-38
0.41488451 0.089219511 1.0553637 2.1192659e-38
0.42482173 0.089085169 1.0556364 2.1930224e-38
0.43470332 0.089219511 1.0553637 2.1099742e-38
0.44507909 0.089152336 1.0555 2.128413e-38
0.45498976 0.089152336 1.0555 2.0548013e-38
0.46490049 0.089152336 1.0555 2.1747285e-38
0.47528273 0.089085169 1.0556364 2.1193024e-38
0.48515123 0.089219511 1.0553637 2.1654726e-38
0.4951067 0.089085169 1.0556364 2.1562169e-38
0.50497007 0.089219511 1.0553637 2.1654003e-38
0.51493073 0.089085169 1.0556364 2.0454733e-38
0.52478892 0.089219511 1.0553637 2.0822428e-38
0.53517634 0.089152336 1.0555 2.1377049e-38
0.54508704 0.089152336 1.0555 2.1191935e-38
0.55037415 0.088413455 1.057 2.0545477e-38
-0.57291424 0.091446027 1.052 2.2485574e-38
-0.56483245 0.091446027 1.052 2.1101188e-38
-0.55495459 0.09144602 1.052 2.1930954e-38
-0.54507679 0.091446027 1.052 2.1562166e-38
-0.53519887 0.09144602 1.052 2.1746197e-38
-0.52532113 0.091446027 1.052 2.0546568e-38
-0.51454526 0.091446027 1.052 2.1007544e-38
-0.50466746 0.09144602 1.052 2.1468887e-38
-0.4947896 0.091446027 1.052 2.1283769e-38
-0.48491177 0.09144602 1.052 2.1560357e-38
-0.47503394 0.091446027 1.052 2.1468882e-38
-0.46515608 0.09144602 1.052 2.1469245e-38
-0.45527825 0.091446027 1.052 2.1099739e-38
-0.44450244 0.091446027 1.052 2.1375602e-38
-0.43462464 0.09144602 1.052 2.1468159e-38
-0.42474681 0.091446027 1.052 2.137524e-38
-0.41486898 0.09144602 1.052 2.1836945e-38
-0.40499112 0.091446027 1.052 2.0821343e-38
-0.39511329 0.09144602 1.052 2.0822791e-38
-0.38523549 0.091446027 1.052 2.0823151e-38
-0.37535763 0.09144602 1.052 2.1375967e-38
-0.3654798 0.091446027 1.052 2.1099015e-38
-0.35470399 0.091446027 1.052 2.183875e-38
-0.34482616 0.09144602 1.052 2.1838027e-38
-0.3349483 0.091446027 1.052 2.15618e-38
-0.32507047 0.09144602 1.052 2.0824241e-38
-0.31519267 0.091446027 1.052 2.1655086e-38
-0.30531484 0.09144602 1.052 2.1563255e-38
-0.29543698 0.091446027 1.052 2.1562891e-38
-0.28466117 0.091446027 1.052 2.1655091e-38
-0.27478334 0.09144602 1.052 2.1654729e-38
-0.26490551 0.091446027 1.052 2.0824604e-38
-0.25502768 0.09144602 1.052 2.183767e-38
-0.24514984 0.091446027 1.052 2.1191575e-38
-0.23527201 0.09144602 1.052 2.1007905e-38
-0.22539417 0.091446027 1.052 2.1469242e-38
-0.21461837 0.091446027 1.052 2.0730594e-38
-0.20474052 0.09144602 1.052 2.0453282e-38
-0.19486269 0.091446027 1.052 2.0639123e-38
-0.18498486 0.09144602 1.052 2.1376326e-38
-0.17510703 0.091446027 1.052 2.1930228e-38
-0.1652292 0.09144602 1.052 2.1745834e-38
-0.15535137 0.091446027 1.052 2.1377774e-38
-0.14457554 0.091446027 1.052 2.1469248e-38
-0.13469772 0.09144602 1.052 2.1193025e-38
-0.12481987 0.091446027 1.052 2.1007906e-38
-0.11494205 0.09144602 1.052 2.0823152e-38
-0.10506421 0.091446027 1.052 2.1284135e-38
-0.09518639 0.09144602 1.052 2.1930226e-38
-0.085308552 0.091446027 1.052 2.1191938e-38
-0.07453274 0.091446027 1.052 2.1191933e-38
-0.064654902 0.09144602 1.052 2.0455457e-38
-0.054777067 0.091446027 1.052 2.183948e-38
-0.044899236 0.09144602 1.052 2.1193024e-38
-0.035021406 0.091446027 1.052 2.1746563e-38
-0.025143573 0.09144602 1.052 2.1746559e-38
-0.01526574 0.091446027 1.052 2.1654e-38
-0.0053879088 0.09144602 1.052 2.0730959e-38
0.0044899238 0.091446027 1.052 2.0638401e-38
0.015265742 0.091446027 1.052 2.1469609e-38
0.025143573 0.09144602 1.052 2.1191575e-38
0.035021409 0.091446027 1.052 2.1375964e-38
0.044899236 0.09144602 1.052 2.1468883e-38
0.054777071 0.091446027 1.052 2.1469245e-38
0.064654902 0.09144602 1.052 2.0915349e-38
0.074532732 0.091446027 1.052 2.1283405e-38
0.085308552 0.091446027 1.052 2.1375963e-38
0.095186375 0.09144602 1.052 2.1283403e-38
0.10506423 0.091446027 1.052 2.1744748e-38
0.11494205 0.09144602 1.052 2.0729143e-38
0.12481989 0.091446027 1.052 2.0915346e-38
0.13469772 0.09144602 1.052 2.0822789e-38
0.14457555 0.091446027 1.052 2.1468522e-38
0.15535137 0.091446027 1.052 2.1099015e-38
0.16522919 0.09144602 1.052 2.1930587e-38
0.17510703 0.091446027 1.052 2.1745833e-38
0.18498485 0.09144602 1.052 2.1285215e-38
0.19486269 0.091446027 1.052 2.1100829e-38
0.20474052 0.09144602 1.052 2.1655445e-38
0.21461837 0.091446027 1.052 2.1378862e-38
0.22539417 0.091446027 1.052 2.1562892e-38
0.23527201 0.09144602 1.052 2.1747286e-38
0.24514984 0.091446027 1.052 2.1562533e-38
0.25502768 0.09144602 1.052 2.0916798e-38
0.26490551 0.091446027 1.052 2.1469249e-38
0.27478334 0.09144602 1.052 2.1100098e-38
0.2846612 0.091446027 1.052 2.1007904e-38
0.29543701 0.091446027 1.052 2.1561079e-38
0.30531481 0.09144602 1.052 2.0822791e-38
0.31519264 0.091446027 1.052 2.0452922e-38
0.32507047 0.09144602 1.052 2.0454733e-38
0.3349483 0.091446027 1.052 2.1468522e-38
0.34482616 0.09144602 1.052 2.1837673e-38
0.35470399 0.091446027 1.052 2.183803e-38
0.3654798 0.091446027 1.052 2.146961e-38
0.37535763 0.09144602 1.052 2.137705e-38
0.38523549 0.091446027 1.052 2.1008632e-38
0.39511329 0.09144602 1.052 2.1007545e-38
0.40499112 0.091446027 1.052 2.0915709e-38
0.41486892 0.09144602 1.052 2.137633e-38
0.42474681 0.091446027 1.052 2.2022421e-38
0.43462464 0.09144602 1.052 2.109938e-38
0.44450244 0.091446027 1.052 2.128413e-38
0.45527825 0.091446027 1.052 2.0732043e-38
0.46515608 0.09144602 1.052 2.1932035e-38
0.47503397 0.091446027 1.052 2.1285579e-38
0.48491177 0.09144602 1.052 2.202351e-38
0.4947896 0.091446027 1.052 2.1469971e-38
0.50466746 0.09144602 1.052 2.1654362e-38
0.51454532 0.091446027 1.052 2.0546927e-38
0.52532113 0.091446027 1.052 2.1007183e-38
0.53519887 0.09144602 1.052 2.1469248e-38
0.54417878 0.09144602 1.052 2.1284492e-38
-0.581689 0.083413854 1.0670002 2.1193745e-38
-0.57492727 0.084777348 1.0642859 2.1932038e-38
-0.56496578 0.084571838 1.0646957 2.1192662e-38
-0.55494094 0.084777348 1.0642858 2.1746559e-38
-0.54497164 0.084571838 1.0646957 2.1561806e-38
-0.53495461 0.08477734 1.0642858 2.1654363e-38
-0.52497756 0.084571831 1.0646957 2.0546567e-38
-0.51496816 0.084777348 1.0642858 2.0914623e-38
-0.50498348 0.084571838 1.0646957 2.1468886e-38
-0.49498177 0.08477734 1.0642858 2.1284132e-38
-0.48521745 0.084670365 1.0645001 2.1376325e-38
-0.47499549 0.084702469 1.0644348 2.1375964e-38
-0.46499881 0.084634267 1.0645715 2.146816e-38
-0.45500633 0.084702469 1.0644349 2.0915707e-38
-0.44500703 0.084634259 1.0645716 2.1283044e-38
-0.43501714 0.084702469 1.0644348 2.1376325e-38
-0.42501533 0.084634267 1.0645715 2.1283763e-38
